# .PCD v0.7 - Point Cloud Data file format
VERSION 0.7
FIELDS x y z intensity roll pitch yaw timestamp
SIZE 4 4 4 4 4 4 4 8
TYPE F F F F F F F F
COUNT 1 1 1 1 1 1 1 1
WIDTH 532
HEIGHT 1
VIEWPOINT 0 0 0 1 0 0 0
POINTS 532
DATA ascii
112.27122 72.061768 -0.20919311 0 0.17095441 0.2146446 2.1769888 1.6486073e+09
111.44267 71.559776 -0.016263921 1 0.17814864 0.21461339 2.1867735 1.6486073e+09
110.58365 71.017159 0.1808389 2 0.17905593 0.21432427 2.1971247 1.6486073e+09
109.68893 70.45163 0.38859332 3 0.18048368 0.2152009 2.2048295 1.6486073e+09
108.48243 69.69091 0.66791815 4 0.18251868 0.2165944 2.2103326 1.6486073e+09
107.61421 69.138832 0.87035608 5 0.18410118 0.2206251 2.2065344 1.6486073e+09
106.71793 68.58461 1.0695682 6 0.18603146 0.22419158 2.2023346 1.6486073e+09
105.81977 68.033508 1.2823393 7 0.18613926 0.22646238 2.1982615 1.6486073e+09
104.92712 67.490074 1.4813596 8 0.18787977 0.23135892 2.1943417 1.6486073e+09
104.00598 66.945786 1.6926004 9 0.18811436 0.23430556 2.1897483 1.6486073e+09
103.09512 66.404724 1.9078896 10 0.18804832 0.23642378 2.1867678 1.6486073e+09
102.19409 65.857651 2.1148212 11 0.19060802 0.23701309 2.1942685 1.6486073e+09
101.18295 65.223572 2.3612936 12 0.19486192 0.23595089 2.2010188 1.6486073e+09
100.29025 64.683746 2.5758169 13 0.1952579 0.2391298 2.1959062 1.6486073e+09
99.36554 64.131477 2.7920768 14 0.19268933 0.24271448 2.1882651 1.6486073e+09
98.40696 63.572803 3.0151434 15 0.19192411 0.24496081 2.1876576 1.6486073e+09
97.467461 63.01445 3.2420075 16 0.19159721 0.24710655 2.1891441 1.6486073e+09
96.54847 62.465096 3.4563882 17 0.19425566 0.24886076 2.1907446 1.6486073e+09
95.6175 61.913307 3.6727796 18 0.19484265 0.25049695 2.1922235 1.6486073e+09
94.789978 61.409405 3.8741646 19 0.19564147 0.25158861 2.1970379 1.6486073e+09
93.916618 60.874187 4.0871768 20 0.19691986 0.25179249 2.2018003 1.6486073e+09
93.001633 60.305813 4.3095241 21 0.20013201 0.25288695 2.2073202 1.6486073e+09
92.049973 59.708649 4.5477867 22 0.2020541 0.25366119 2.2117846 1.6486073e+09
91.106895 59.124229 4.7791119 23 0.20028585 0.25811416 2.2127852 1.6486073e+09
90.184364 58.562408 5.0042982 24 0.19739743 0.26510808 2.2134194 1.6486073e+09
89.287468 57.997604 5.2310758 25 0.1992846 0.26242131 2.2134261 1.6486073e+09
88.349915 57.415241 5.4648905 26 0.19954528 0.2671169 2.2144942 1.6486073e+09
87.38028 56.799576 5.6990476 27 0.19912957 0.26247486 2.21205 1.6486073e+09
86.534035 56.278336 5.9031501 28 0.19642195 0.26608181 2.2110665 1.6486073e+09
85.678352 55.749737 6.113081 29 0.19765666 0.26922226 2.210726 1.6486073e+09
84.790932 55.198532 6.3301101 30 0.19532001 0.26923651 2.2093968 1.6486073e+09
83.881454 54.635937 6.5405087 31 0.19495523 0.2707701 2.2085321 1.6486073e+09
82.554665 53.832317 6.8593493 32 0.19029048 0.27460194 2.2072141 1.6486073e+09
81.610741 53.253235 7.0741467 33 0.18700416 0.27660963 2.2061446 1.6486073e+09
80.705643 52.696152 7.2890472 34 0.19153665 0.27895707 2.2101209 1.6486073e+09
79.823341 52.14856 7.4978156 35 0.19047634 0.28107896 2.2126703 1.6486073e+09
78.969154 51.620514 7.6991172 36 0.18971322 0.28392962 2.212307 1.6486073e+09
77.98307 51.010231 7.9304562 37 0.18802433 0.28632775 2.2122972 1.6486073e+09
76.875771 50.324383 8.1781569 38 0.18623795 0.28839228 2.2122016 1.6486073e+09
75.951324 49.755981 8.3884535 39 0.18525799 0.29060456 2.2121496 1.6486073e+09
74.903168 49.10762 8.6308613 40 0.18392447 0.2926333 2.2119451 1.6486073e+09
74.019135 48.557621 8.8323441 41 0.18242146 0.29467717 2.2119465 1.6486073e+09
73.114746 48.00568 9.0380764 42 0.18174814 0.2975879 2.2115741 1.6486073e+09
72.186295 47.42672 9.2382545 43 0.17833015 0.300589 2.211544 1.6486073e+09
71.238129 46.849739 9.4441977 44 0.17459761 0.30322561 2.2118678 1.6486073e+09
70.270218 46.243744 9.6520166 45 0.17397489 0.30476895 2.2173889 1.6486074e+09
69.288284 45.619087 9.8668222 46 0.17270625 0.30530602 2.222472 1.6486074e+09
68.470139 45.097351 10.045453 47 0.17214009 0.30712283 2.2271698 1.6486074e+09
67.643402 44.555534 10.216029 48 0.17170975 0.30682316 2.2315743 1.6486074e+09
66.826675 44.014824 10.403819 49 0.17037834 0.30739084 2.2337258 1.6486074e+09
65.984177 43.47131 10.573066 50 0.16568001 0.30989444 2.2301111 1.6486074e+09
65.139641 42.935333 10.75365 51 0.16276497 0.31442857 2.2265313 1.6486074e+09
64.287697 42.392708 10.923564 52 0.16094594 0.31661382 2.2228708 1.6486074e+09
63.450123 41.868031 11.088925 53 0.15873402 0.31698263 2.219485 1.6486074e+09
62.59911 41.329636 11.241025 54 0.14925699 0.32345635 2.2157211 1.6486074e+09
61.570408 40.694065 11.438254 55 0.13948908 0.32652622 2.2118917 1.6486074e+09
60.671734 40.140503 11.589911 56 0.13977648 0.3337653 2.2110269 1.6486074e+09
59.579399 39.44994 11.772069 57 0.13693495 0.33503625 2.209336 1.6486074e+09
58.655354 38.876869 11.923881 58 0.13195939 0.33926806 2.2076848 1.6486074e+09
57.710617 38.285645 12.079889 59 0.13188098 0.33994144 2.2059624 1.6486074e+09
56.7383 37.689568 12.234644 60 0.12664701 0.34349257 2.204355 1.6486074e+09
55.759388 37.07901 12.385827 61 0.12412871 0.34441987 2.2062747 1.6486074e+09
54.759487 36.448788 12.537136 62 0.12278351 0.34749174 2.2086494 1.6486074e+09
53.544647 35.686588 12.723228 63 0.118963 0.34878895 2.2106898 1.6486074e+09
52.542381 35.047005 12.872195 64 0.11664364 0.35237181 2.2131164 1.6486074e+09
51.574108 34.420193 13.019605 65 0.11361128 0.35373402 2.2146316 1.6486074e+09
50.434193 33.686768 13.178413 66 0.10870667 0.35719153 2.2164698 1.6486074e+09
49.510502 33.087212 13.29889 67 0.10258579 0.35971519 2.2123644 1.6486074e+09
48.580452 32.500851 13.419972 68 0.098228469 0.36310527 2.2072306 1.6486074e+09
47.433674 31.778206 13.557523 69 0.095163383 0.3667191 2.201339 1.6486074e+09
46.486366 31.183105 13.666698 70 0.089348026 0.36859414 2.1962519 1.6486074e+09
45.503853 30.577372 13.779333 71 0.082414985 0.37223911 2.1953638 1.6486074e+09
44.525223 29.961887 13.879476 72 0.073610529 0.37628075 2.1963778 1.6486074e+09
43.562157 29.340921 13.973647 73 0.066701636 0.37602401 2.1975062 1.6486074e+09
42.643612 28.739891 14.06274 74 0.065249942 0.37555274 2.1988096 1.6486074e+09
41.710468 28.129131 14.131322 75 0.050809301 0.37911689 2.1980274 1.6486074e+09
40.579498 27.407923 14.225431 76 0.044347767 0.37542048 2.1954291 1.6486074e+09
39.636692 26.774567 14.280552 77 0.048391711 0.37686467 2.1943209 1.6486074e+09
38.679592 26.153164 14.3448 78 0.037304245 0.37661648 2.192616 1.6486074e+09
37.557346 25.429884 14.408023 79 0.030886915 0.38005328 2.1906292 1.6486074e+09
36.670803 24.849121 14.4533 80 0.025512323 0.38040599 2.1889539 1.6486074e+09
35.106678 23.839165 14.509207 81 0.016817797 0.38327834 2.1871927 1.6486074e+09
34.246368 23.281179 14.537491 82 0.0099542961 0.3861956 2.1870894 1.6486074e+09
33.423843 22.731884 14.560475 83 0.0044437642 0.38866991 2.1877422 1.6486074e+09
32.383015 22.052876 14.581774 84 -0.00011308611 0.39190325 2.1893973 1.6486074e+09
31.271952 21.3057 14.596642 85 -0.0054421378 0.39505225 2.1928322 1.6486074e+09
30.162895 20.544462 14.600211 86 -0.010023152 0.39797941 2.1961296 1.6486074e+09
29.049328 19.776253 14.610002 87 -0.014098234 0.40032715 2.1989839 1.6486074e+09
28.106438 19.120445 14.601935 88 -0.019720195 0.40294254 2.2011242 1.6486074e+09
27.140331 18.42724 14.594254 89 -0.029627359 0.40347087 2.2008154 1.6486074e+09
26.139835 17.734814 14.570699 90 -0.039253503 0.40865698 2.1964793 1.6486074e+09
25.334341 17.172371 14.543397 91 -0.046121072 0.41053531 2.1923406 1.6486074e+09
24.305414 16.457981 14.499758 92 -0.052547008 0.41419554 2.1875286 1.6486074e+09
23.505371 15.90031 14.47244 93 -0.061419304 0.41615954 2.1832068 1.6486074e+09
22.313137 15.090913 14.395039 94 -0.070331827 0.41984829 2.1785996 1.6486074e+09
21.385893 14.438714 14.33215 95 -0.07856039 0.42176789 2.1779759 1.6486074e+09
20.481092 13.804679 14.272367 96 -0.087500848 0.4246572 2.1768484 1.6486074e+09
19.240215 12.933893 14.148229 97 -0.10003334 0.43029943 2.1751466 1.6486074e+09
18.213324 12.190322 14.060645 98 -0.10656997 0.42819473 2.1732733 1.6486074e+09
17.181625 11.475238 13.942327 99 -0.11350247 0.43305644 2.170377 1.6486074e+09
16.002163 10.621136 13.799635 100 -0.12586212 0.43262616 2.1636848 1.6486074e+09
14.994811 9.9177189 13.670329 101 -0.13743417 0.43539742 2.1519566 1.6486074e+09
13.998528 9.2287874 13.518468 102 -0.14898251 0.43628642 2.1446891 1.6486074e+09
12.987378 8.5327435 13.360295 103 -0.15672894 0.43932894 2.1412194 1.6486074e+09
11.943302 7.7947316 13.192946 104 -0.16577904 0.44026649 2.1383214 1.6486074e+09
10.841285 7.0229249 12.992029 105 -0.17447633 0.44262916 2.1345208 1.6486074e+09
9.4925137 6.0798769 12.735593 106 -0.181078 0.44502264 2.1304982 1.6486074e+09
8.5049067 5.3847132 12.54478 107 -0.18868043 0.44690132 2.1286259 1.6486074e+09
6.8482032 4.2213459 12.207531 108 -0.20037375 0.44905862 2.1279914 1.6486074e+09
6.0264964 3.6358709 12.021104 109 -0.21180391 0.45046887 2.1252778 1.6486074e+09
5.2388105 3.0640028 11.847325 110 -0.22114125 0.45290864 2.1219921 1.6486074e+09
4.0616388 2.2186644 11.568844 111 -0.2323817 0.45386627 2.1146615 1.6486074e+09
2.9081981 1.4011521 11.27467 112 -0.24453042 0.4542402 2.106154 1.6486074e+09
1.7763164 0.60786581 10.971119 113 -0.26050735 0.45426914 2.0960009 1.6486074e+09
0.85124552 -0.043200985 10.698112 114 -0.27812585 0.45330334 2.0848415 1.6486074e+09
-0.049470924 -0.65390038 10.420166 115 -0.29205701 0.45335451 2.0727789 1.6486074e+09
-1.2836848 -1.4962003 10.025841 116 -0.3008692 0.45196152 2.0573823 1.6486074e+09
-2.141001 -2.0559318 9.7323275 117 -0.31201002 0.45058516 2.0456288 1.6486074e+09
-3.3113756 -2.821296 9.3302336 118 -0.32223815 0.45101219 2.0362632 1.6486074e+09
-4.1120443 -3.3463433 9.0471916 119 -0.33414918 0.45238581 2.030504 1.6486074e+09
-5.0486183 -3.9674559 8.7019024 120 -0.34510612 0.45243979 2.0264628 1.6486074e+09
-5.9634862 -4.5794792 8.3498116 121 -0.35641125 0.45310295 2.0221107 1.6486074e+09
-7.0462146 -5.2949243 7.9326344 122 -0.36484942 0.45464382 2.017374 1.6486074e+09
-7.9517603 -5.9015284 7.5623798 123 -0.37586933 0.45540783 2.012604 1.6486074e+09
-8.8544931 -6.5087967 7.1763558 124 -0.38716921 0.45642978 2.0078278 1.6486074e+09
-9.7683725 -7.1204648 6.7862196 125 -0.39673269 0.45717952 2.0029984 1.6486074e+09
-10.536474 -7.6281681 6.4393353 126 -0.40581441 0.45724806 1.997629 1.6486074e+09
-11.999949 -8.615056 5.7608986 127 -0.41867283 0.45984128 1.9929149 1.6486074e+09
-12.817458 -9.1631145 5.3678169 128 -0.43075836 0.45660511 1.9875753 1.6486074e+09
-13.611607 -9.7093906 4.9788985 129 -0.43975097 0.45683506 1.9812286 1.6486074e+09
-14.401443 -10.229573 4.5768299 130 -0.44462988 0.46056774 1.9729084 1.6486074e+09
-15.529939 -10.988925 3.9955986 131 -0.45828378 0.45510387 1.9680287 1.6486074e+09
-17.200781 -12.10628 3.1065524 132 -0.46840155 0.4541651 1.9611466 1.6486074e+09
-18.346592 -12.866528 2.4809489 133 -0.47761166 0.45258853 1.9542236 1.6486074e+09
-19.307091 -13.505839 1.9431598 134 -0.48701817 0.45028901 1.9477261 1.6486074e+09
-20.09194 -14.028866 1.4917936 135 -0.49728397 0.45089185 1.9390308 1.6486074e+09
-21.522346 -14.953509 0.65925598 136 -0.50647491 0.44850188 1.9320323 1.6486074e+09
-23.110289 -15.980179 -0.28197211 137 -0.51763588 0.44618383 1.9250526 1.6486074e+09
-24.640903 -16.945805 -1.2102497 138 -0.53061765 0.44297838 1.9120201 1.6486074e+09
-25.37183 -17.416506 -1.6679943 139 -0.53803724 0.43690747 1.9027365 1.6486074e+09
-26.100094 -17.866676 -2.1359179 140 -0.54526144 0.43347606 1.8929545 1.6486074e+09
-26.829594 -18.310143 -2.6136796 141 -0.55458832 0.43155271 1.8813052 1.6486074e+09
-27.734482 -18.845718 -3.2141244 142 -0.56221682 0.42812121 1.870204 1.6486074e+09
-28.484476 -19.290241 -3.7221682 143 -0.57364666 0.42760921 1.8638279 1.6486074e+09
-29.225723 -19.729458 -4.2316165 144 -0.58323002 0.42692998 1.857362 1.6486074e+09
-29.946077 -20.155031 -4.7338128 145 -0.59072161 0.42635655 1.8511171 1.6486074e+09
-30.781546 -20.639084 -5.3233089 146 -0.59801 0.42724302 1.8439542 1.6486074e+09
-31.583946 -21.12224 -5.9058447 147 -0.60077769 0.4251956 1.8385218 1.6486074e+09
-32.349945 -21.576811 -6.4679871 148 -0.60279197 0.42294452 1.8325667 1.6486074e+09
-33.135029 -22.031891 -7.0520496 149 -0.61264932 0.41717473 1.8211499 1.6486074e+09
-34.100933 -22.553619 -7.7793794 150 -0.62377203 0.41307572 1.8062636 1.6486074e+09
-34.800106 -22.936064 -8.3182163 151 -0.63476682 0.40520084 1.7941062 1.6486074e+09
-35.624943 -23.353342 -8.9614162 152 -0.64626503 0.40055734 1.7798694 1.6486074e+09
-36.328682 -23.691235 -9.5233259 153 -0.64775622 0.40400326 1.7659489 1.6486074e+09
-37.083088 -24.080791 -10.121273 154 -0.65738302 0.39588255 1.7599735 1.6486074e+09
-37.844181 -24.45451 -10.732649 155 -0.66358584 0.39200222 1.7522181 1.6486074e+09
-38.594158 -24.810682 -11.341914 156 -0.66925871 0.3893334 1.743202 1.6486074e+09
-39.339851 -25.161158 -11.951855 157 -0.67108279 0.38453528 1.7357869 1.6486074e+09
-40.113682 -25.511726 -12.589555 158 -0.67676443 0.38233829 1.7267693 1.6486074e+09
-40.908409 -25.863333 -13.248116 159 -0.68407434 0.38001165 1.7183795 1.6486074e+09
-41.699047 -26.218788 -13.904113 160 -0.68670249 0.37971637 1.716282 1.6486074e+09
-42.506023 -26.575903 -14.57598 161 -0.68817168 0.38123819 1.7125604 1.6486074e+09
-43.315689 -26.943403 -15.248799 162 -0.69120091 0.37907627 1.7051072 1.6486074e+09
-44.113312 -27.275293 -15.920559 163 -0.69561422 0.3747575 1.6961426 1.6486074e+09
-44.894951 -27.595228 -16.581207 164 -0.70077682 0.37118113 1.6865058 1.6486074e+09
-45.660332 -27.908512 -17.24498 165 -0.70176697 0.3689695 1.6808078 1.6486074e+09
-46.757965 -28.342291 -18.175375 166 -0.6991806 0.36914799 1.678301 1.6486074e+09
-47.73143 -28.732082 -19.002506 167 -0.69915128 0.37037796 1.6767373 1.6486074e+09
-48.581841 -29.073534 -19.728167 168 -0.70020467 0.37140521 1.6739712 1.6486074e+09
-49.41991 -29.40958 -20.440823 169 -0.69839305 0.36947778 1.6742786 1.6486074e+09
-50.250298 -29.737761 -21.144945 170 -0.69609702 0.37114319 1.6693622 1.6486074e+09
-51.45179 -30.193762 -22.141256 171 -0.69378734 0.36500061 1.6630859 1.6486074e+09
-52.638695 -30.599293 -23.131271 172 -0.69829631 0.36403254 1.6479704 1.6486074e+09
-53.483345 -30.89193 -23.841318 173 -0.69791359 0.36108875 1.6379373 1.6486074e+09
-54.485458 -31.206217 -24.676645 174 -0.6927439 0.35906085 1.626134 1.6486074e+09
-56.580418 -31.85088 -26.359997 175 -0.68925619 0.35638726 1.6185071 1.6486074e+09
-60.705204 -33.086643 -29.600498 176 -0.68069148 0.35383043 1.6138384 1.6486074e+09
-61.540695 -33.322693 -30.283422 177 -0.67282951 0.34869441 1.6107836 1.6486074e+09
-69.273674 -35.962471 -37.709023 178 -0.90366012 0.35320389 1.6043485 1.6486074e+09
-71.594704 -36.155968 -38.233475 179 -0.66104949 0.35487241 1.5973638 1.6486074e+09
-72.471474 -36.270061 -38.675941 180 -0.52295345 0.35098314 1.5965904 1.6486074e+09
-85.174805 -39.35601 -47.60424 181 -0.85593861 0.36023611 1.5812932 1.6486074e+09
-86.667198 -39.7076 -48.648685 182 -0.83715063 0.36904389 1.5798501 1.6486074e+09
-88.246506 -40.018742 -49.83992 183 -0.82832193 0.38123018 1.5690254 1.6486074e+09
-82.019669 -38.661179 -46.059956 184 -0.3028602 0.37726602 1.5893365 1.6486074e+09
-88.680786 -40.061096 -50.013195 185 -0.36008668 0.38080111 1.5911378 1.6486074e+09
-91.061417 -40.560326 -51.374699 186 -0.335774 0.38140324 1.5960186 1.6486074e+09
-93.488373 -41.001923 -52.707138 187 -0.23237291 0.38431382 1.6045117 1.6486074e+09
-96.247253 -41.549824 -54.114803 188 -0.2760832 0.39208287 1.6056852 1.6486074e+09
-98.569061 -41.968449 -55.243004 189 -0.23820052 0.39765546 1.6141081 1.6486074e+09
-102.55792 -42.652996 -57.047119 190 -0.18710461 0.39492792 1.6229146 1.6486074e+09
-104.5333 -42.99028 -57.88681 191 -0.1434688 0.38523379 1.6338639 1.6486074e+09
-106.31324 -41.42757 -53.344906 192 -0.039399482 0.37752172 1.6414106 1.6486074e+09
-108.01022 -37.007244 -41.321434 193 -0.022854481 0.3759999 1.6482929 1.6486074e+09
-106.84952 -29.84618 -22.311783 194 0.017045494 0.36577111 1.6586725 1.6486074e+09
-104.02894 -26.125414 -12.867694 195 0.068993635 0.3508938 1.664785 1.6486074e+09
-103.47199 -25.275358 -10.719518 196 0.096536778 0.33647323 1.6694518 1.6486074e+09
-104.7071 -24.938311 -9.8881893 197 0.13995592 0.32275921 1.6745778 1.6486074e+09
-105.76922 -24.845257 -9.4651642 198 0.13995171 0.3109203 1.6770774 1.6486074e+09
-108.05404 -24.936075 -6.4003301 199 0.1702242 0.28810614 1.6810161 1.6486074e+09
-111.22299 -25.545395 -5.1056547 200 0.090090193 0.26700431 1.699074 1.6486074e+09
-107.94102 -30.287317 -25.013941 201 0.091807216 0.26425496 1.7051681 1.6486074e+09
-107.34373 -31.064466 -28.565895 202 0.07040862 0.26196474 1.7098013 1.6486074e+09
-106.53876 -31.917084 -32.453056 203 0.023342917 0.26183051 1.7153864 1.6486074e+09
-115.99789 -37.06562 -42.058754 204 -0.5122779 0.20264089 1.7493888 1.6486074e+09
-119.78361 -40.726429 -51.105618 205 -0.57523292 0.1787513 1.800023 1.6486074e+09
-121.40426 -44.285126 -60.785709 206 -0.64455068 0.1871669 1.833293 1.6486074e+09
-126.00246 -51.60503 -76.387825 207 -0.70773357 0.19155346 1.8687656 1.6486074e+09
-123.0127 -54.808846 -85.455025 208 -0.66152626 0.23874131 1.8850979 1.6486074e+09
-126.15888 -59.725872 -92.730171 209 -0.51618457 0.27894413 1.8868315 1.6486074e+09
-127.42904 -61.975082 -95.575394 210 -0.42265439 0.33634052 1.9201533 1.6486074e+09
-129.76518 -64.316788 -97.40239 211 -0.35580429 0.38428041 1.9513944 1.6486074e+09
-131.48764 -66.371674 -98.125984 212 -0.19192974 0.42636982 1.9851441 1.6486074e+09
-133.10925 -68.633987 -98.37484 213 -0.098203674 0.45471966 2.0053785 1.6486074e+09
-134.08449 -71.320534 -97.862335 214 -0.13445278 0.46554422 2.014924 1.6486074e+09
-125.0136 -40.933968 -67.599113 215 0.32117394 0.47993296 2.0368707 1.6486074e+09
-145.63696 -43.633244 -37.25872 216 0.43333352 0.36543578 2.0475354 1.6486074e+09
-139.68501 -32.250004 -28.061518 217 0.56357789 0.3598125 2.0698555 1.6486074e+09
-132.49382 -23.464428 -4.0067472 218 0.60641384 0.4202455 1.9454598 1.6486074e+09
-138.31119 -5.0688539 -0.06850113 219 1.3867357 -0.22272024 2.4649429 1.6486074e+09
-136.46446 -2.7016943 1.2967912 220 1.3995734 -0.25386879 2.4715257 1.6486074e+09
-110.76394 -38.616947 34.560032 221 1.0011523 -0.48125464 2.3604419 1.6486074e+09
-117.97782 -36.712227 42.329533 222 0.83721638 -0.40064195 2.7198555 1.6486074e+09
-131.66675 -45.631657 -5.3030124 223 0.57553959 -0.41284183 2.7088614 1.6486074e+09
-131.73312 -44.526016 -5.7392292 224 0.53435647 -0.37463203 2.7568362 1.6486074e+09
-129.84929 -44.346539 -6.4936056 225 0.55890644 -0.48229283 2.695405 1.6486074e+09
-127.76622 -44.97649 -7.4993429 226 0.58071774 -0.48559254 2.6547875 1.6486074e+09
-125.95085 -45.173573 -8.4220114 227 0.61137885 -0.4905051 2.6232433 1.6486074e+09
-126.23008 -46.075542 -7.8530521 228 0.63450158 -0.50455743 2.615413 1.6486074e+09
-89.487221 -69.332977 -18.864124 229 -0.73860139 -0.05165419 -0.54499716 1.6486074e+09
-89.140114 -75.942039 -14.562079 230 -0.31515607 0.33241579 -0.90091836 1.6486074e+09
-86.98967 -86.049973 -16.411438 231 -0.031915691 0.77986372 0.043499783 1.6486074e+09
-104.58401 -73.486473 -8.5761919 232 0.38810876 0.53486294 0.80049473 1.6486074e+09
-124.25481 -55.827419 -3.461796 233 0.73603147 0.72301817 1.4272996 1.6486074e+09
-130.87489 -50.842663 -2.2385559 234 0.77315831 0.73085451 1.4670328 1.6486074e+09
-136.77443 -57.877384 2.989717 235 0.95991135 0.39786017 2.0393226 1.6486074e+09
-141.50763 -54.552502 4.8362751 236 0.99156243 0.35686448 2.1031036 1.6486074e+09
-91.372047 -74.774597 -20.025963 237 0.61584401 -0.67903113 -3.140135 1.6486074e+09
-102.49787 -85.095459 -9.1268463 238 0.072866991 0.51533222 0.61846578 1.6486074e+09
-103.48021 -84.231895 -8.6990452 239 0.065979891 0.59624678 0.62423635 1.6486074e+09
-103.67709 -81.950264 -9.6200409 240 -0.017417626 0.69959331 0.59338051 1.6486074e+09
-103.57601 -80.559792 -10.373943 241 -0.069234021 0.75751406 0.56859368 1.6486074e+09
-96.330681 -63.610558 -27.932264 242 -1.0881969 0.28844568 -0.75857645 1.6486074e+09
-95.409637 -62.324955 -28.781477 243 -1.0947299 0.2662136 -0.85393423 1.6486074e+09
-94.723396 -60.606754 -29.777912 244 -1.1294013 0.25287431 -0.92762655 1.6486074e+09
-93.826614 -59.13826 -30.969805 245 -1.1595359 0.2313135 -0.99212712 1.6486074e+09
-92.804146 -67.647484 -26.524611 246 -0.67052561 -0.1202527 -1.3964421 1.6486074e+09
-90.003822 -67.934067 -28.653646 247 -0.61159635 -0.28535622 -1.5211939 1.6486074e+09
-88.918518 -104.88299 1.2963597 248 0.90061963 -0.49708965 2.8427298 1.6486074e+09
-90.021782 -113.69009 10.658769 249 1.2601275 -0.13752617 2.421068 1.6486074e+09
-102.72377 -116.56502 2.7393482 250 1.1445028 -0.26505741 2.2678468 1.6486074e+09
-118.85043 -48.63607 3.4223595 251 -1.3303834 0.35948333 -1.6106812 1.6486074e+09
-117.63243 -48.310978 2.7138581 252 -1.3134761 0.35431364 -1.6173244 1.6486074e+09
-116.60474 -47.947014 1.5266316 253 -1.3150053 0.34971213 -1.6274576 1.6486074e+09
-115.69193 -47.508667 0.23901604 254 -1.3285432 0.34148279 -1.6345814 1.6486074e+09
-147.16585 -50.741024 63.821766 255 -0.76040208 1.340557 -0.78760803 1.6486074e+09
-146.07523 -51.225285 61.271202 256 -0.86833513 1.337133 -0.90501702 1.6486074e+09
-107.94263 -63.074291 53.636501 257 -1.4598579 1.3959936 -1.5152997 1.6486074e+09
-106.54199 -62.570812 53.133884 258 -1.6637292 1.3778594 -1.7165112 1.6486074e+09
-117.06905 -111.38385 71.206032 259 -1.4104185 0.87022102 -1.7809756 1.6486074e+09
-124.99288 -106.43464 34.63179 260 -1.9912075 -0.47269109 -2.0269904 1.6486074e+09
-110.60523 -86.200188 62.846169 261 -2.0250478 -0.38751465 -2.0404184 1.6486074e+09
-103.50224 -80.477219 78.499908 262 -2.0541439 -0.33853698 -2.0511136 1.6486074e+09
-101.13744 -76.705894 83.948746 263 -2.0757272 -0.33594462 -2.0522449 1.6486074e+09
-93.622147 -68.572632 95.357018 264 -1.9615784 -0.63644105 -1.9646385 1.6486074e+09
-94.270538 -69.10508 94.587082 265 -2.0084929 -0.72345692 -1.9070414 1.6486074e+09
-125.58932 -58.05212 31.263002 266 0.84809494 -0.77388018 2.0790958 1.6486074e+09
-128.60066 -53.109318 19.212746 267 1.0732217 -0.82258552 1.9614347 1.6486074e+09
-145.54361 -85.334877 26.231144 268 -0.57424939 -0.037002992 -1.2264882 1.6486074e+09
-145.53023 -85.360558 26.162285 269 -0.59150243 -0.16078106 -1.3947034 1.6486075e+09
-153.83757 -77.212097 34.67244 270 -0.38608211 0.58514321 0.022605291 1.6486075e+09
-148.48 -70.01754 27.180971 271 -0.44222555 0.59624189 -0.005153738 1.6486075e+09
-147.66029 -70.610634 26.529247 272 -0.49978301 0.60774469 -0.077141844 1.6486075e+09
-146.66933 -71.582024 25.828066 273 -0.55330169 0.61251247 -0.15906346 1.6486075e+09
-145.49875 -72.859161 25.006325 274 -0.63951522 0.58778703 -0.2960757 1.6486075e+09
-159.26669 -69.984146 39.233685 275 -0.090267912 0.73627353 0.50701827 1.6486075e+09
-156.72261 -70.412239 39.443703 276 -0.15473415 0.88692456 0.39561778 1.6486075e+09
-159.79909 -67.993996 42.404011 277 0.34815976 0.88341331 1.043709 1.6486075e+09
-151.84801 -88.886337 42.36623 278 0.87045664 0.67611295 1.0345699 1.6486075e+09
-150.25528 -94.370316 43.191502 279 0.9136942 0.68915087 1.0717402 1.6486075e+09
-149.64455 -96.405418 43.563026 280 0.94313067 0.71181107 1.0920955 1.6486075e+09
-146.12 -96.856712 45.205307 281 0.98273176 0.86330068 1.2740952 1.6486075e+09
-139.70766 -101.82748 43.095177 282 1.2682563 1.0040812 1.6126592 1.6486075e+09
-121.98864 -111.54559 -3.1275594 283 1.7767614 -0.93778235 2.0005188 1.6486075e+09
-119.30405 -116.34681 -1.5682855 284 1.4178133 -0.58122009 2.087512 1.6486075e+09
-119.86885 -115.37863 0.23849089 285 1.1038543 -0.15141509 2.3986223 1.6486075e+09
-112.22758 -119.19221 -15.282207 286 1.143059 -0.89102638 2.2393909 1.6486075e+09
-106.30589 -118.52487 -52.051186 287 0.52809489 1.0604445 1.3157867 1.6486075e+09
-109.4248 -117.49408 -34.981865 288 -1.752669 0.25178069 -1.1104808 1.6486075e+09
-119.22942 -112.7287 6.2718778 289 -1.2642184 0.053393371 -1.2494477 1.6486075e+09
-116.21556 -104.5782 17.328018 290 -1.3210456 0.02088456 -1.038865 1.6486075e+09
-121.54131 -101.27473 30.74646 291 -1.3934695 0.036827356 -1.0217681 1.6486075e+09
-100.28955 -116.57034 7.9156346 292 1.7202444 -1.424046 1.9561168 1.6486075e+09
-126.33511 -93.184158 23.488003 293 -1.2251232 0.29564831 -0.96511632 1.6486075e+09
-152.12546 -69.91687 27.255051 294 -1.4202477 0.70273012 -0.30918708 1.6486075e+09
-219.55937 11.697839 -86.119392 295 -1.0988522 -0.28104252 -1.1149698 1.6486075e+09
-214.14986 23.450624 -158.75433 296 -0.10498808 -1.1537566 -2.3412154 1.6486075e+09
-128.56682 -39.989418 -313.53351 297 1.2842103 -1.0523618 2.1525185 1.6486075e+09
-100.96272 -153.31339 -64.884453 298 0.1188952 -0.73065829 2.0700288 1.6486075e+09
-86.601006 -146.09286 -63.311718 299 0.14421134 -0.28972125 1.9895756 1.6486075e+09
-94.978523 -162.60948 -70.010948 300 -0.25325429 -0.84503967 2.0242977 1.6486075e+09
-268.68765 -109.14999 -8.3761616 301 0.37207422 0.014755004 -0.15809721 1.6486075e+09
-268.42313 -107.9754 -7.8994851 302 0.41053659 0.053850435 -0.22444285 1.6486075e+09
-155.94615 -20.882895 50.531937 303 -0.33256474 0.78866798 -2.3603449 1.6486075e+09
-157.46094 -20.458593 50.990353 304 -0.36652145 0.81040198 -2.382683 1.6486075e+09
-114.41129 -101.05976 -29.275846 305 0.01345708 -0.23766893 -3.1156647 1.6486075e+09
-161.79495 -66.681259 -22.158728 306 0.22127037 0.51102054 -1.7238426 1.6486075e+09
-154.58421 -76.601158 -25.859423 307 0.21035786 0.52485251 -1.7173142 1.6486075e+09
-153.24339 -102.95541 -33.411545 308 0.25749797 0.55577552 -1.5489272 1.6486075e+09
-146.89383 -108.48231 -35.187874 309 0.26296428 0.58390146 -1.5359251 1.6486075e+09
-159.68127 -129.5168 -44.677315 310 -0.015764348 0.4230375 -2.3962226 1.6486075e+09
-136.18652 -101.34061 -34.045891 311 -0.6281727 -0.17715576 2.8830113 1.6486075e+09
-145.05351 -98.248451 -29.672974 312 0.05801909 -0.56303036 2.0468669 1.6486075e+09
-148.08743 -106.27424 -33.838173 313 0.10372139 -0.47992977 1.8840744 1.6486075e+09
-121.78592 -85.938812 -23.587196 314 0.1683231 0.35021442 -0.2543951 1.6486075e+09
-146.0005 -44.260807 -6.2174687 315 -0.49005759 -0.62296629 2.0776155 1.6486075e+09
-137.56302 -54.181404 -10.425753 316 -0.55485851 -0.44600269 2.247056 1.6486075e+09
-137.85843 -55.464409 -11.036234 317 -0.56840843 -0.45670649 2.2598217 1.6486075e+09
-138.48009 -57.946289 -12.30266 318 -0.57296437 -0.46976963 2.2644732 1.6486075e+09
-109.30386 -35.62009 -1.3746392 319 -0.64533693 -0.45173991 2.4054995 1.6486075e+09
-102.00986 -39.046764 -0.71113813 320 -0.66655082 -0.45907286 2.4541671 1.6486075e+09
-149.66104 -42.150364 -3.5114958 321 -0.61276746 -0.44928178 2.4020147 1.6486075e+09
-149.8665 -47.471958 -4.8254671 322 -0.52387726 -0.45394352 2.3857677 1.6486075e+09
-150.93929 -52.106808 -8.2450819 323 -0.53087264 -0.46342424 2.3730607 1.6486075e+09
-173.30917 -23.277975 8.1355314 324 -0.032596484 0.84575021 -2.1682849 1.6486075e+09
-164.35493 -23.387787 11.307506 325 0.02771434 0.38321003 -1.9391799 1.6486075e+09
-177.23959 -18.370977 15.828753 326 0.090634674 0.40490472 -1.9242641 1.6486075e+09
-177.01172 -23.089891 12.225003 327 0.14893024 0.42179266 -1.8724645 1.6486075e+09
-174.23444 -26.248436 10.044188 328 0.52013361 0.50526333 -1.3049396 1.6486075e+09
-173.88957 -27.837254 8.8348827 329 0.54470158 0.46678331 -1.2897791 1.6486075e+09
-173.45956 -29.453129 7.5979109 330 0.55982816 0.43115625 -1.2916719 1.6486075e+09
-173.07074 -30.771704 6.5879965 331 0.56912804 0.41136843 -1.302482 1.6486075e+09
-170.4185 -0.24215707 30.5972 332 -0.82709426 -0.14007427 2.3716905 1.6486075e+09
-153.90692 2.3612692 36.157681 333 0.46831918 -0.095129162 -0.48914078 1.6486075e+09
-145.60033 -6.6927323 32.849995 334 0.31253621 -0.20880084 0.4259322 1.6486075e+09
-150.18558 -24.392958 24.083601 335 0.090718001 -0.48862875 0.89501476 1.6486075e+09
-149.24422 -27.569069 25.533567 336 0.015767144 -0.57442582 1.0577109 1.6486075e+09
-148.46472 -30.577993 26.7941 337 -0.073043138 -0.65204388 1.2166048 1.6486075e+09
-147.72795 -34.036079 28.085596 338 -0.19360183 -0.71971422 1.4123161 1.6486075e+09
-173.88008 -26.096949 41.083244 339 -0.88951236 0.30722213 3.0979655 1.6486075e+09
-174.1987 -29.524998 42.125088 340 -0.87575376 0.31993088 3.0866969 1.6486075e+09
-174.4993 -32.9576 42.908813 341 -0.88697433 0.33157137 3.0723925 1.6486075e+09
-169.48351 -42.025497 31.61713 342 -1.0900781 1.2641869 -2.7133143 1.6486075e+09
-169.51614 -43.239098 32.096729 343 -1.0451785 1.2664385 -2.690465 1.6486075e+09
-141.5139 -54.287304 29.164291 344 0.90886462 1.0137068 -0.46572277 1.6486075e+09
-142.53206 -61.44556 14.059675 345 0.77775329 1.3689976 -1.2656868 1.6486075e+09
-130.2431 -56.342056 32.551273 346 0.67050987 0.56828183 -0.80422944 1.6486075e+09
-156.6226 -38.303299 50.686138 347 -0.1860933 -0.88310987 1.2098184 1.6486075e+09
-147.97491 -29.024755 79.870995 348 -0.8545692 -1.0172848 2.5561674 1.6486075e+09
-149.09094 -13.590737 104.66327 349 -0.87915766 -0.84226722 2.6404471 1.6486075e+09
-80.285675 -31.559988 16.084049 350 -0.0064947861 -0.02922599 1.5801989 1.6486075e+09
-72.020332 -31.698647 14.122099 351 -0.035764106 0.026646424 1.7203025 1.6486075e+09
-82.211243 -20.000278 7.1593413 352 -0.59823316 -0.0061195428 1.0241537 1.6486075e+09
-129.08037 2.6962447 -13.788933 353 -0.40793249 0.55615723 1.9035499 1.6486075e+09
-121.87318 3.3746078 -10.071011 354 0.098127186 0.35790753 2.4114096 1.6486075e+09
-125.61967 3.315233 -12.630399 355 0.0087309489 0.40229893 2.3248327 1.6486075e+09
-126.89258 2.7040939 -12.801086 356 0.014702891 0.383095 2.3385913 1.6486075e+09
-155.63043 5.5944386 -20.18314 357 -0.4447684 0.44382101 1.5761975 1.6486075e+09
-176.79454 12.453557 -23.57431 358 -0.0084918402 0.14473981 2.0636783 1.6486075e+09
-185.29282 13.22487 -25.171362 359 -0.023195254 0.16317973 2.0574877 1.6486075e+09
-189.78223 4.5850925 8.9606895 360 0.15571065 0.3259342 0.8556602 1.6486075e+09
-202.7397 -15.270901 11.197746 361 0.55084068 -0.23679507 0.90772069 1.6486075e+09
-227.22183 -7.7419205 22.094225 362 0.45128426 -0.23945071 0.91411853 1.6486075e+09
-237.43439 -3.0949123 27.237528 363 0.33142731 0.31963015 0.9123435 1.6486075e+09
-235.06552 9.2095385 29.512163 364 0.4486464 0.26710558 -0.023390468 1.6486075e+09
-212.74181 1.9876192 15.539099 365 0.68277013 0.55369794 0.44348392 1.6486075e+09
-213.96632 -2.2130055 17.136894 366 0.68602985 0.56707394 0.44909921 1.6486075e+09
-216.68503 -7.8304892 16.714497 367 0.71624374 0.58269829 0.44955933 1.6486075e+09
-214.5513 -8.6987591 20.029264 368 0.73366368 0.5965842 0.45639604 1.6486075e+09
-185.19341 -13.037497 -2.1199491 369 0.87846035 -0.013666073 1.5343115 1.6486075e+09
-179.5407 -23.254265 -8.1917448 370 0.96249127 -0.35721403 1.1441511 1.6486075e+09
-160.65054 -15.567867 -18.455902 371 0.79186976 -0.59970534 1.7084522 1.6486075e+09
-155.87805 -15.541432 -22.007895 372 0.78762293 -0.64090037 1.7106349 1.6486075e+09
-137.01935 -10.601942 -34.176949 373 0.28110734 -0.94961929 2.5170875 1.6486075e+09
-117.10874 -6.9069939 -47.556271 374 0.0062183454 -0.59302193 2.7987998 1.6486075e+09
-106.05827 -5.8318944 -55.267735 375 -0.11535921 -0.53444862 2.9130468 1.6486075e+09
-128.34738 -7.1357241 -4.4273148 376 -0.10626763 0.61840922 -3.0829942 1.6486075e+09
-115.12452 -9.8065977 -0.55843568 377 -0.13363236 0.80331153 -2.9825993 1.6486075e+09
-167.31445 22.486376 -30.427155 378 -0.85505074 0.10686293 1.4968675 1.6486075e+09
-181.69229 32.311958 -45.31176 379 -0.90819186 0.2482574 1.6892215 1.6486075e+09
-182.2341 32.657036 -46.171001 380 -0.90724617 0.24231051 1.7182118 1.6486075e+09
-136.4781 84.475365 -3.5046415 381 0.50650638 -0.3166697 -0.084668323 1.6486075e+09
-129.55655 77.718193 -0.021286013 382 0.52447611 -0.3599773 -0.10331589 1.6486075e+09
-130.2439 78.801056 0.1666926 383 0.60471344 -0.36023709 -0.11421172 1.6486075e+09
-108.38028 16.205626 -8.4828987 384 -0.69990987 -0.31764331 1.1348916 1.6486075e+09
-116.4174 -37.335297 -32.415001 385 0.32451206 0.21947457 -1.8340878 1.6486075e+09
-150.30588 -44.074715 -63.145004 386 -0.32709157 -0.68027866 1.3079495 1.6486075e+09
-191.77859 14.530507 -78.541328 387 -0.15365931 -0.47162464 0.24691528 1.6486075e+09
-192.59485 14.244203 -77.594025 388 -0.13221805 -0.46884945 0.26116684 1.6486075e+09
-115.83813 -47.012699 -42.755966 389 -0.89460963 0.058224536 1.6552376 1.6486075e+09
-134.68628 -40.290443 -54.221233 390 -0.84621602 -0.052904952 1.4736255 1.6486075e+09
-133.27859 -43.073162 -54.157543 391 -0.84706765 -0.053745929 1.4429436 1.6486075e+09
-123.34822 -43.761269 -47.24963 392 -0.58402461 -0.066763103 1.3944478 1.6486075e+09
-113.46651 -35.223537 -61.725845 393 -0.59718263 -0.3501806 1.4655666 1.6486075e+09
-49.891361 28.627678 -5.5309 394 -0.41525993 0.67478955 -2.8625078 1.6486075e+09
-37.908916 28.973635 -23.340927 395 -1.1562562 -0.21308428 2.8894889 1.6486075e+09
-38.806519 38.201035 -29.466284 396 -1.1884981 -0.17054906 2.8935497 1.6486075e+09
-40.685879 47.429462 -35.089123 397 -1.2318147 -0.15495355 2.9391389 1.6486075e+09
-44.199162 58.356335 -41.015141 398 -1.286849 -0.18402034 3.0653059 1.6486075e+09
-49.982132 70.573669 -46.964443 399 -1.3454655 -0.21348467 -3.0684731 1.6486075e+09
-55.841293 79.689507 -51.504089 400 -1.3999285 -0.22600871 -2.9296789 1.6486075e+09
-160.1785 29.899149 -11.416041 401 -0.67030448 0.97196752 -1.3696724 1.6486075e+09
-145.35429 13.98162 -13.008824 402 -1.0894842 1.2134781 -1.852051 1.6486075e+09
-166.63405 2.4147789 -97.187393 403 1.6627642 -0.86010402 1.0024182 1.6486075e+09
-166.92934 1.6518246 -96.407234 404 1.7067305 -0.82614398 0.96003664 1.6486075e+09
-167.25154 0.76009876 -95.493538 405 1.7479789 -0.79245675 0.92228746 1.6486075e+09
-221.06082 -55.203808 -43.062847 406 1.844811 0.85662723 1.234134 1.6486075e+09
-149.75674 -70.257187 -39.20322 407 1.7454475 0.95967603 1.3197879 1.6486075e+09
-146.34177 -75.379143 -36.373333 408 1.6618911 0.97955126 1.2950609 1.6486075e+09
-140.42326 15.347287 27.821539 409 1.6838712 0.40068242 1.2626963 1.6486075e+09
-142.98064 97.388138 100.29858 410 -1.7264324 0.028014807 -1.2835448 1.6486075e+09
-143.12468 97.291267 99.09462 411 -1.6730177 0.016321225 -1.2419866 1.6486075e+09
-171.67978 18.984173 332.77594 412 1.4380395 0.77669215 1.3940384 1.6486075e+09
-123.9338 -21.969353 2.2925749 413 0.092629507 0.4354834 1.4297966 1.6486075e+09
-125.77467 -19.869329 1.8687311 414 0.11437411 0.44804445 1.4459685 1.6486075e+09
-125.57247 -17.909508 2.0495708 415 0.14027035 0.46122584 1.4663875 1.6486075e+09
-128.50009 -15.257507 1.7240589 416 0.10649651 0.474828 1.5003881 1.6486075e+09
-129.7666 -13.906456 2.0734015 417 0.13478445 0.48212186 1.5231365 1.6486075e+09
-141.96295 -5.4813066 -0.98825395 418 -0.27310586 0.49704742 1.5486871 1.6486075e+09
-161.16542 2.2181067 -2.1593192 419 -0.16071962 0.49240246 1.9078282 1.6486075e+09
-162.15573 1.78376 -2.3495843 420 -0.12386529 0.48900098 1.9302686 1.6486075e+09
-250.98505 30.306335 -9.4846964 421 -0.21117532 -0.52583915 -1.9255811 1.6486075e+09
-248.51837 29.317005 -9.4848309 422 -0.24746861 -0.53138584 -1.9018863 1.6486075e+09
-246.97812 28.52804 -9.4634466 423 -0.28082135 -0.53839958 -1.891369 1.6486075e+09
-229.07005 30.48881 21.801497 424 -0.34023008 -0.53219908 -1.8700838 1.6486075e+09
-199.8098 -31.723654 13.288257 425 -0.044208124 0.47173926 0.58402956 1.6486075e+09
-199.62561 -28.79771 12.714054 426 -0.029305309 0.5403142 0.61359543 1.6486075e+09
-200.23022 -21.955845 11.949405 427 -0.016972041 0.60968328 0.63474172 1.6486075e+09
-200.2659 -20.919554 11.795538 428 -0.003417016 0.65294701 0.65607345 1.6486075e+09
-200.35449 -19.771364 11.539879 429 0.011074195 0.69259232 0.67790061 1.6486075e+09
-201.86848 22.980648 2.050421 430 0.33684993 0.85121495 1.1669018 1.6486075e+09
-201.14452 31.640104 -1.042312 431 0.41073453 0.87225795 1.1845261 1.6486075e+09
-197.5807 42.679642 -7.9192514 432 0.4531894 0.8622632 1.0840917 1.6486075e+09
-196.3945 55.00555 -13.119438 433 0.49635303 0.87112772 1.127007 1.6486075e+09
-199.06299 54.42379 -14.970413 434 0.53863508 0.88589913 1.1622432 1.6486075e+09
-192.63283 71.399132 -30.44524 435 0.70629102 0.085804991 1.8460552 1.6486075e+09
-217.30194 114.82056 -16.918425 436 0.73831993 0.019934477 1.9508432 1.6486075e+09
-130.77254 -65.846268 -59.702858 437 -0.62364721 0.27085289 -0.73351759 1.6486075e+09
-126.3984 -71.698006 -63.242622 438 -0.65310615 0.26785532 -0.71740055 1.6486075e+09
-163.32471 -29.804577 -35.294956 439 -0.75157881 0.10329298 -0.82688242 1.6486075e+09
-164.20258 -27.710526 -34.835186 440 -0.78444892 0.12028449 -0.82184368 1.6486075e+09
-178.35867 -6.1828909 -27.219629 441 -0.86958516 -0.1005112 -0.91557276 1.6486075e+09
-181.3947 4.6178865 -24.460222 442 -0.89825749 -0.14634915 -0.91249871 1.6486075e+09
-188.92717 17.951262 -22.271517 443 -0.93772256 -0.19040878 -0.92175221 1.6486075e+09
-197.65251 34.354977 -21.004826 444 -0.98424566 -0.15471455 -0.90261889 1.6486075e+09
-203.86015 47.626019 -21.871996 445 -1.1112787 -0.10435251 -0.8851549 1.6486075e+09
-203.02678 50.214634 -27.052361 446 -1.3368001 -0.057396237 -1.0859488 1.6486075e+09
-196.71677 44.090427 -35.88829 447 -1.4639846 -0.15664761 -1.4300773 1.6486075e+09
-183.03682 17.459913 -44.425743 448 0.58636087 -0.80369616 2.7624705 1.6486075e+09
-181.92522 18.052443 -41.620285 449 0.37740883 -0.95793641 2.9872108 1.6486075e+09
-182.39253 16.303465 -41.83971 450 0.41758248 -0.97152507 2.9602642 1.6486075e+09
-178.31409 3.4790168 -26.493208 451 1.2667955 -0.7632789 2.637114 1.6486075e+09
-179.07275 0.7632885 -27.036741 452 1.3140047 -0.7429598 2.599123 1.6486075e+09
-180.72609 5.3017921 -19.759247 453 0.85578597 -1.1008469 3.0679066 1.6486075e+09
-186.16148 13.04458 -13.602139 454 -0.91756576 -0.78889346 -1.4921002 1.6486075e+09
-186.76006 12.022353 -12.178871 455 -0.92401969 -0.8129676 -1.4943904 1.6486075e+09
-204.33585 41.12051 1.7522112 456 -1.2557439 0.69861513 -0.98353767 1.6486075e+09
-210.45949 48.625019 -12.319963 457 -1.9701164 -0.56700802 -0.7438972 1.6486075e+09
-186.11363 10.568521 10.98285 458 -2.1083047 0.82306528 -1.4233284 1.6486075e+09
-185.49077 9.5874643 11.449945 459 -2.1589551 0.87003165 -1.4867206 1.6486075e+09
-196.26123 25.283304 2.2032938 460 1.9310579 -0.10966862 2.0697727 1.6486075e+09
-194.96762 20.907421 -10.125933 461 1.9149008 -0.19157936 2.3705075 1.6486075e+09
-200.68071 22.738842 -37.652176 462 1.2496406 -1.4063867 2.7645974 1.6486075e+09
-190.56302 22.532907 26.722691 463 -0.83464801 1.4676449 -0.45845518 1.6486075e+09
-175.39246 19.89603 70.7267 464 -1.5599117 0.52352947 -0.80482632 1.6486075e+09
-223.96318 10.126715 33.762241 465 -1.0427166 0.55676448 -0.82760793 1.6486075e+09
-222.7291 4.9347887 27.926294 466 0.35661373 0.57254475 0.88699454 1.6486075e+09
-202.23924 29.738008 -10.728831 467 1.3035445 -0.087447561 1.5006825 1.6486075e+09
-190.30211 41.999519 -34.744839 468 1.3524425 -0.1147053 1.5114163 1.6486075e+09
-188.42369 40.216301 -35.714573 469 1.3904772 -0.096463084 1.504794 1.6486075e+09
-186.41586 38.767017 -36.984127 470 1.4174957 -0.075222991 1.521781 1.6486075e+09
-185.73309 38.854706 -38.645111 471 1.4471321 -0.051816531 1.6167166 1.6486075e+09
-176.71211 40.642601 -35.576141 472 1.2901399 -0.026892638 1.7708849 1.6486075e+09
-175.18091 39.879395 -36.368095 473 1.3223146 -0.032785311 1.7785389 1.6486075e+09
-173.95215 44.375671 -37.50964 474 1.3296994 -0.042494413 1.8781011 1.6486075e+09
-175.26819 58.856762 -38.015022 475 1.3196455 -0.16809231 1.9317969 1.6486075e+09
-172.43735 65.991348 -39.63364 476 1.3336755 -0.19665582 1.934003 1.6486075e+09
-171.76205 71.375443 -41.541939 477 1.3578942 -0.20507087 1.9273232 1.6486075e+09
-162.16168 70.116699 -70.973633 478 1.3243327 -0.21879716 1.800072 1.6486075e+09
-160.89594 78.865593 -76.057831 479 0.98967022 -0.29463887 1.9422776 1.6486075e+09
-160.45641 83.692238 -78.324524 480 1.1425384 -0.85456681 1.674749 1.6486075e+09
-169.237 102.12775 -36.211708 481 -1.1719308 -0.93348384 -2.2044344 1.6486075e+09
-147.2299 87.286903 -0.38734287 482 -1.0650737 0.13676393 -1.8232554 1.6486075e+09
-144.84656 86.069801 0.37340161 483 -1.1005183 0.12072823 -1.8437818 1.6486075e+09
-165.15862 59.131996 32.304382 484 1.6930422 0.4304485 1.2383931 1.6486075e+09
-202.31982 19.220137 90.813293 485 -1.3801532 -1.0712531 -1.9292099 1.6486075e+09
-197.82541 34.520222 111.69766 486 -1.7778362 -0.59099197 -1.9246001 1.6486075e+09
-204.98479 47.643734 177.4399 487 1.5373607 -1.192898 0.72740024 1.6486075e+09
-197.96695 52.882706 169.79419 488 1.3385921 -1.2644651 1.0851896 1.6486075e+09
-198.31914 53.044014 172.28784 489 1.4074005 -1.2979413 1.0208433 1.6486075e+09
-196.12874 115.28161 33.35294 490 0.40768814 -0.67741829 1.2853633 1.6486075e+09
-194.81055 117.91764 34.167522 491 0.45134902 -0.64404643 1.263718 1.6486075e+09
-192.61217 120.92385 35.250504 492 0.4777284 -0.58082509 1.277932 1.6486075e+09
-190.8138 110.07314 29.076805 493 0.69239724 -0.59125233 0.8432619 1.6486075e+09
-191.17551 111.19043 29.611872 494 0.73621458 -0.58600318 0.82507545 1.6486075e+09
-192.14583 113.47586 31.047733 495 0.78466976 -0.57173789 0.79068154 1.6486075e+09
-198.86317 93.270569 18.835691 496 0.88169736 -0.2478952 0.28946212 1.6486075e+09
-195.6833 88.784111 16.094919 497 0.9144085 -0.27663666 0.35915866 1.6486075e+09
-204.12987 68.689384 4.8593445 498 -0.22130303 0.23179013 -1.9146309 1.6486075e+09
-213.63579 58.366615 0.66668475 499 -0.31880227 0.28262138 -2.0720506 1.6486075e+09
-240.70897 46.879265 18.785675 500 -0.26795027 0.59439701 -1.6800864 1.6486075e+09
-208.14412 74.367691 12.706234 501 0.62377548 0.28498656 0.19761637 1.6486075e+09
-196.41487 69.581802 3.5480628 502 0.59881341 0.1748988 0.25602618 1.6486075e+09
-202.39462 108.96294 26.156069 503 0.48206735 -0.23032223 0.82012606 1.6486075e+09
-258.52133 66.35907 40.681419 504 0.74930429 -0.3098909 1.7664107 1.6486075e+09
-185.4868 80.719032 -6.3919568 505 -0.6244421 0.9751814 -1.1403815 1.6486075e+09
-241.26227 43.108112 16.525061 506 -1.0095621 0.053394031 -2.4795332 1.6486075e+09
-213.83858 44.58963 -4.7450991 507 -0.73213857 0.40869781 -1.2605324 1.6486075e+09
-210.06294 43.12706 -6.5368996 508 -0.58072931 0.53329629 -1.0140983 1.6486075e+09
-188.24678 32.326626 -36.219837 509 -1.0771909 0.37000224 -1.842293 1.6486075e+09
-175.61156 37.959377 -42.262474 510 -0.47413829 0.63621044 -0.83776897 1.6486075e+09
-165.45105 34.945549 -55.425556 511 -0.68549162 0.53984362 -1.7081354 1.6486075e+09
-146.22302 31.666504 -80.310699 512 -0.69606256 0.30008292 -1.621835 1.6486075e+09
-99.702339 18.070242 -24.349413 513 -0.29447246 -0.30378109 -1.8139311 1.6486075e+09
-56.667915 -0.64757723 -33.501068 514 -0.28355223 -0.45589599 -2.2116735 1.6486075e+09
-55.786751 -1.0388067 -33.103352 515 -0.28480133 -0.47986841 -2.2811811 1.6486075e+09
-240.02924 -27.868599 27.935799 516 0.0028975399 0.070953779 2.2145705 1.6486075e+09
-211.73187 -74.340401 18.823002 517 0.18972751 0.11846916 1.9784281 1.6486075e+09
-229.34697 -71.232559 24.039606 518 0.047676735 0.20680079 1.4625167 1.6486075e+09
-197.63411 47.417103 19.675484 519 -0.019903533 0.42903268 -0.69671273 1.6486075e+09
-191.90074 62.975483 3.1423564 520 -0.21442135 0.3038204 -1.0965134 1.6486075e+09
-190.89992 63.481628 2.8106117 521 -0.21003538 0.29682335 -1.1113795 1.6486075e+09
-220.43996 -53.083801 -7.0975642 522 0.22065561 -0.30731633 1.8255249 1.6486075e+09
-218.70338 -47.135433 -4.9210157 523 0.21961342 -0.30450287 1.7797723 1.6486075e+09
-218.68071 -57.872227 -5.6635556 524 0.11794077 -0.1506367 2.0335991 1.6486075e+09
-219.49814 63.186172 -0.2325619 525 -0.26939747 -0.31104091 1.6052557 1.6486075e+09
-218.75659 143.87721 1.2187136 526 0.17137951 -0.010821366 -0.86707932 1.6486075e+09
-212.66797 146.5199 1.005803 527 0.1811792 -0.013736719 -0.93277371 1.6486075e+09
-129.80725 -90.597923 0.038210522 528 -0.25674289 0.25523993 2.9915869 1.6486075e+09
-167.05113 -85.917038 -2.0796287 529 -0.25834951 -0.08729624 2.2117081 1.6486075e+09
-169.36282 -92.750809 -2.0403697 530 -0.2421888 -0.25307602 -0.62506807 1.6486075e+09
-179.75797 -92.777908 -2.0104675 531 -0.23463626 -0.25151917 -0.69579601 1.6486075e+09
